ply
format ascii 1.0
comment Test Mesh Generator
element vertex 2279
property float x
property float y
property float z
end_header
0.9000 1.4833 0.0800
0.9200 1.4956 0.0800
0.9400 1.5076 0.0800
0.9600 1.5192 0.0800
0.9800 1.5305 0.0800
1.0000 1.5415 0.0800
0.0000 0.7000 0.1000
0.0200 0.7200 0.1000
0.0400 0.7400 0.1000
0.0600 0.7600 0.1000
0.0800 0.7799 0.1000
0.1000 0.7998 0.1000
0.1200 0.8197 0.1000
0.1400 0.8395 0.1000
0.1600 0.8593 0.1000
0.1800 0.8790 0.1000
0.2000 0.8987 0.1000
0.2200 0.9182 0.1000
0.2400 0.9377 0.1000
0.2600 0.9571 0.1000
0.2800 0.9764 0.1000
0.3000 0.9955 0.1000
0.3200 1.0146 0.1000
0.3400 1.0335 0.1000
0.3600 1.0523 0.1000
0.3800 1.0709 0.1000
0.4000 1.0894 0.1000
0.4200 1.1078 0.1000
0.4400 1.1259 0.1000
0.4600 1.1439 0.1000
0.4800 1.1618 0.1000
0.5000 1.1794 0.1000
0.5200 1.1969 0.1000
0.5400 1.2141 0.1000
0.5600 1.2312 0.1000
0.5800 1.2480 0.1000
0.6000 1.2646 0.1000
0.6200 1.2810 0.1000
0.6400 1.2972 0.1000
0.6600 1.3131 0.1000
0.6800 1.3288 0.1000
0.7000 1.3442 0.1000
0.7200 1.3594 0.1000
0.7400 1.3743 0.1000
0.7600 1.3889 0.1000
0.7800 1.4033 0.1000
0.8000 1.4174 0.1000
0.8200 1.4311 0.1000
0.8400 1.4446 0.1000
0.8600 1.4578 0.1000
0.8800 1.4707 0.1000
0.9000 1.4833 0.1000
0.9200 1.4956 0.1000
0.9400 1.5076 0.1000
0.9600 1.5192 0.1000
0.9800 1.5305 0.1000
1.0000 1.5415 0.1000
0.0000 0.7000 0.1200
0.0200 0.7200 0.1200
0.0400 0.7400 0.1200
0.0600 0.7600 0.1200
0.0800 0.7799 0.1200
0.1000 0.7998 0.1200
0.1200 0.8197 0.1200
0.1400 0.8395 0.1200
0.1600 0.8593 0.1200
0.1800 0.8790 0.1200
0.2000 0.8987 0.1200
0.2200 0.9182 0.1200
0.2400 0.9377 0.1200
0.2600 0.9571 0.1200
0.2800 0.9764 0.1200
0.3000 0.9955 0.1200
0.3200 1.0146 0.1200
0.3400 1.0335 0.1200
0.3600 1.0523 0.1200
0.3800 1.0709 0.1200
0.4000 1.0894 0.1200
0.4200 1.1078 0.1200
0.4400 1.1259 0.1200
0.4600 1.1439 0.1200
0.4800 1.1618 0.1200
0.5000 1.1794 0.1200
0.5200 1.1969 0.1200
0.5400 1.2141 0.1200
0.5600 1.2312 0.1200
0.5800 1.2480 0.1200
0.6000 1.2646 0.1200
0.6200 1.2810 0.1200
0.6400 1.2972 0.1200
0.6600 1.3131 0.1200
0.6800 1.3288 0.1200
0.7000 1.3442 0.1200
0.7200 1.3594 0.1200
0.7400 1.3743 0.1200
0.7600 1.3889 0.1200
0.7800 1.4033 0.1200
0.8000 1.4174 0.1200
0.8200 1.4311 0.1200
0.8400 1.4446 0.1200
0.8600 1.4578 0.1200
0.8800 1.4707 0.1200
0.9000 1.4833 0.1200
0.9200 1.4956 0.1200
0.9400 1.5076 0.1200
0.9600 1.5192 0.1200
0.9800 1.5305 0.1200
1.0000 1.5415 0.1200
0.0000 0.7000 0.1400
0.0200 0.7200 0.1400
0.0400 0.7400 0.1400
0.0600 0.7600 0.1400
0.0800 0.7799 0.1400
0.1000 0.7998 0.1400
0.1200 0.8197 0.1400
0.1400 0.8395 0.1400
0.1600 0.8593 0.1400
0.1800 0.8790 0.1400
0.2000 0.8987 0.1400
0.2200 0.9182 0.1400
0.2400 0.9377 0.1400
0.2600 0.9571 0.1400
0.2800 0.9764 0.1400
0.3000 0.9955 0.1400
0.3200 1.0146 0.1400
0.3400 1.0335 0.1400
0.3600 1.0523 0.1400
0.3800 1.0709 0.1400
0.4000 1.0894 0.1400
0.4200 1.1078 0.1400
0.4400 1.1259 0.1400
0.4600 1.1439 0.1400
0.4800 1.1618 0.1400
0.5000 1.1794 0.1400
0.5200 1.1969 0.1400
0.5400 1.2141 0.1400
0.5600 1.2312 0.1400
0.5800 1.2480 0.1400
0.6000 1.2646 0.1400
0.6200 1.2810 0.1400
0.6400 1.2972 0.1400
0.6600 1.3131 0.1400
0.6800 1.3288 0.1400
0.7000 1.3442 0.1400
0.7200 1.3594 0.1400
0.7400 1.3743 0.1400
0.7600 1.3889 0.1400
0.7800 1.4033 0.1400
0.8000 1.4174 0.1400
0.8200 1.4311 0.1400
0.8400 1.4446 0.1400
0.8600 1.4578 0.1400
0.8800 1.4707 0.1400
0.9000 1.4833 0.1400
0.9200 1.4956 0.1400
0.9400 1.5076 0.1400
0.9600 1.5192 0.1400
0.9800 1.5305 0.1400
1.0000 1.5415 0.1400
0.0000 0.7000 0.1600
0.0200 0.7200 0.1600
0.0400 0.7400 0.1600
0.0600 0.7600 0.1600
0.0800 0.7799 0.1600
0.1000 0.7998 0.1600
0.1200 0.8197 0.1600
0.1400 0.8395 0.1600
0.1600 0.8593 0.1600
0.1800 0.8790 0.1600
0.2000 0.8987 0.1600
0.2200 0.9182 0.1600
0.2400 0.9377 0.1600
0.2600 0.9571 0.1600
0.2800 0.9764 0.1600
0.3000 0.9955 0.1600
0.3200 1.0146 0.1600
0.3400 1.0335 0.1600
0.3600 1.0523 0.1600
0.3800 1.0709 0.1600
0.4000 1.0894 0.1600
0.4200 1.1078 0.1600
0.4400 1.1259 0.1600
0.4600 1.1439 0.1600
0.4800 1.1618 0.1600
0.5000 1.1794 0.1600
0.5200 1.1969 0.1600
0.5400 1.2141 0.1600
0.5600 1.2312 0.1600
0.5800 1.2480 0.1600
0.6000 1.2646 0.1600
0.6200 1.2810 0.1600
0.6400 1.2972 0.1600
0.6600 1.3131 0.1600
0.6800 1.3288 0.1600
0.7000 1.3442 0.1600
0.7200 1.3594 0.1600
0.7400 1.3743 0.1600
0.7600 1.3889 0.1600
0.7800 1.4033 0.1600
0.8000 1.4174 0.1600
0.8200 1.4311 0.1600
0.8400 1.4446 0.1600
0.8600 1.4578 0.1600
0.8800 1.4707 0.1600
0.9000 1.4833 0.1600
0.9200 1.4956 0.1600
0.9400 1.5076 0.1600
0.9600 1.5192 0.1600
0.9800 1.5305 0.1600
1.0000 1.5415 0.1600
0.0000 0.7000 0.1800
0.0200 0.7200 0.1800
0.0400 0.7400 0.1800
0.0600 0.7600 0.1800
0.0800 0.7799 0.1800
0.1000 0.7998 0.1800
0.1200 0.8197 0.1800
0.1400 0.8395 0.1800
0.1600 0.8593 0.1800
0.1800 0.8790 0.1800
0.2000 0.8987 0.1800
0.2200 0.9182 0.1800
0.2400 0.9377 0.1800
0.2600 0.9571 0.1800
0.2800 0.9764 0.1800
0.3000 0.9955 0.1800
0.3200 1.0146 0.1800
0.3400 1.0335 0.1800
0.3600 1.0523 0.1800
0.3800 1.0709 0.1800
0.4000 1.0894 0.1800
0.4200 1.1078 0.1800
0.4400 1.1259 0.1800
0.4600 1.1439 0.1800
0.4800 1.1618 0.1800
0.5000 1.1794 0.1800
0.5200 1.1969 0.1800
0.5400 1.2141 0.1800
0.5600 1.2312 0.1800
0.5800 1.2480 0.1800
0.6000 1.2646 0.1800
0.6200 1.2810 0.1800
0.6400 1.2972 0.1800
0.6600 1.3131 0.1800
0.6800 1.3288 0.1800
0.7000 1.3442 0.1800
0.7200 1.3594 0.1800
0.7400 1.3743 0.1800
0.7600 1.3889 0.1800
0.7800 1.4033 0.1800
0.8000 1.4174 0.1800
0.8200 1.4311 0.1800
0.8400 1.4446 0.1800
0.8600 1.4578 0.1800
0.8800 1.4707 0.1800
0.9000 1.4833 0.1800
0.9200 1.4956 0.1800
0.9400 1.5076 0.1800
0.9600 1.5192 0.1800
0.9800 1.5305 0.1800
1.0000 1.5415 0.1800
0.0000 0.7000 0.2000
0.0200 0.7200 0.2000
0.0400 0.7400 0.2000
0.0600 0.7600 0.2000
0.0800 0.7799 0.2000
0.1000 0.7998 0.2000
0.1200 0.8197 0.2000
0.1400 0.8395 0.2000
0.1600 0.8593 0.2000
0.1800 0.8790 0.2000
0.2000 0.8987 0.2000
0.2200 0.9182 0.2000
0.2400 0.9377 0.2000
0.2600 0.9571 0.2000
0.2800 0.9764 0.2000
0.3000 0.9955 0.2000
0.3200 1.0146 0.2000
0.3400 1.0335 0.2000
0.3600 1.0523 0.2000
0.3800 1.0709 0.2000
0.4000 1.0894 0.2000
0.4200 1.1078 0.2000
0.4400 1.1259 0.2000
0.4600 1.1439 0.2000
0.4800 1.1618 0.2000
0.5000 1.1794 0.2000
0.5200 1.1969 0.2000
0.5400 1.2141 0.2000
0.5600 1.2312 0.2000
0.5800 1.2480 0.2000
0.6000 1.2646 0.2000
0.6200 1.2810 0.2000
0.6400 1.2972 0.2000
0.6600 1.3131 0.2000
0.6800 1.3288 0.2000
0.7000 1.3442 0.2000
0.7200 1.3594 0.2000
0.7400 1.3743 0.2000
0.7600 1.3889 0.2000
0.7800 1.4033 0.2000
0.8000 1.4174 0.2000
0.8200 1.4311 0.2000
0.8400 1.4446 0.2000
0.8600 1.4578 0.2000
0.8800 1.4707 0.2000
0.9000 1.4833 0.2000
0.9200 1.4956 0.2000
0.9400 1.5076 0.2000
0.9600 1.5192 0.2000
0.9800 1.5305 0.2000
1.0000 1.5415 0.2000
0.0000 0.7000 0.2200
0.0200 0.7200 0.2200
0.0400 0.7400 0.2200
0.0600 0.7600 0.2200
0.0800 0.7799 0.2200
0.1000 0.7998 0.2200
0.1200 0.8197 0.2200
0.1400 0.8395 0.2200
0.1600 0.8593 0.2200
0.1800 0.8790 0.2200
0.2000 0.8987 0.2200
0.2200 0.9182 0.2200
0.2400 0.9377 0.2200
0.2600 0.9571 0.2200
0.2800 0.9764 0.2200
0.3000 0.9955 0.2200
0.3200 1.0146 0.2200
0.3400 1.0335 0.2200
0.3600 1.0523 0.2200
0.3800 1.0709 0.2200
0.4000 1.0894 0.2200
0.4200 1.1078 0.2200
0.4400 1.1259 0.2200
0.4600 1.1439 0.2200
0.4800 1.1618 0.2200
0.5000 1.1794 0.2200
0.5200 1.1969 0.2200
0.5400 1.2141 0.2200
0.5600 1.2312 0.2200
0.5800 1.2480 0.2200
0.6000 1.2646 0.2200
0.6200 1.2810 0.2200
0.6400 1.2972 0.2200
0.6600 1.3131 0.2200
0.6800 1.3288 0.2200
0.7000 1.3442 0.2200
0.7200 1.3594 0.2200
0.7400 1.3743 0.2200
0.7600 1.3889 0.2200
0.7800 1.4033 0.2200
0.8000 1.4174 0.2200
0.8200 1.4311 0.2200
0.8400 1.4446 0.2200
0.8600 1.4578 0.2200
0.8800 1.4707 0.2200
0.9000 1.4833 0.2200
0.9200 1.4956 0.2200
0.9400 1.5076 0.2200
0.9600 1.5192 0.2200
0.9800 1.5305 0.2200
1.0000 1.5415 0.2200
0.0000 0.7000 0.2400
0.0200 0.7200 0.2400
0.0400 0.7400 0.2400
0.0600 0.7600 0.2400
0.0800 0.7799 0.2400
0.1000 0.7998 0.2400
0.1200 0.8197 0.2400
0.1400 0.8395 0.2400
0.1600 0.8593 0.2400
0.1800 0.8790 0.2400
0.2000 0.8987 0.2400
0.2200 0.9182 0.2400
0.2400 0.9377 0.2400
0.2600 0.9571 0.2400
0.2800 0.9764 0.2400
0.3000 0.9955 0.2400
0.3200 1.0146 0.2400
0.3400 1.0335 0.2400
0.3600 1.0523 0.2400
0.3800 1.0709 0.2400
0.4000 1.0894 0.2400
0.4200 1.1078 0.2400
0.4400 1.1259 0.2400
0.4600 1.1439 0.2400
0.4800 1.1618 0.2400
0.5000 1.1794 0.2400
0.5200 1.1969 0.2400
0.5400 1.2141 0.2400
0.5600 1.2312 0.2400
0.5800 1.2480 0.2400
0.6000 1.2646 0.2400
0.6200 1.2810 0.2400
0.6400 1.2972 0.2400
0.6600 1.3131 0.2400
0.6800 1.3288 0.2400
0.7000 1.3442 0.2400
0.7200 1.3594 0.2400
0.7400 1.3743 0.2400
0.7600 1.3889 0.2400
0.7800 1.4033 0.2400
0.8000 1.4174 0.2400
0.8200 1.4311 0.2400
0.8400 1.4446 0.2400
0.8600 1.4578 0.2400
0.8800 1.4707 0.2400
0.9000 1.4833 0.2400
0.9200 1.4956 0.2400
0.9400 1.5076 0.2400
0.9600 1.5192 0.2400
0.9800 1.5305 0.2400
1.0000 1.5415 0.2400
0.0000 0.7000 0.2600
0.0200 0.7200 0.2600
0.0400 0.7400 0.2600
0.0600 0.7600 0.2600
0.0800 0.7799 0.2600
0.1000 0.7998 0.2600
0.1200 0.8197 0.2600
0.1400 0.8395 0.2600
0.1600 0.8593 0.2600
0.1800 0.8790 0.2600
0.2000 0.8987 0.2600
0.2200 0.9182 0.2600
0.2400 0.9377 0.2600
0.2600 0.9571 0.2600
0.2800 0.9764 0.2600
0.3000 0.9955 0.2600
0.3200 1.0146 0.2600
0.3400 1.0335 0.2600
0.3600 1.0523 0.2600
0.3800 1.0709 0.2600
0.4000 1.0894 0.2600
0.4200 1.1078 0.2600
0.4400 1.1259 0.2600
0.4600 1.1439 0.2600
0.4800 1.1618 0.2600
0.5000 1.1794 0.2600
0.5200 1.1969 0.2600
0.5400 1.2141 0.2600
0.5600 1.2312 0.2600
0.5800 1.2480 0.2600
0.6000 1.2646 0.2600
0.6200 1.2810 0.2600
0.6400 1.2972 0.2600
0.6600 1.3131 0.2600
0.6800 1.3288 0.2600
0.7000 1.3442 0.2600
0.7200 1.3594 0.2600
0.7400 1.3743 0.2600
0.7600 1.3889 0.2600
0.7800 1.4033 0.2600
0.8000 1.4174 0.2600
0.8200 1.4311 0.2600
0.8400 1.4446 0.2600
0.8600 1.4578 0.2600
0.8800 1.4707 0.2600
0.9000 1.4833 0.2600
0.9200 1.4956 0.2600
0.9400 1.5076 0.2600
0.9600 1.5192 0.2600
0.9800 1.5305 0.2600
1.0000 1.5415 0.2600
0.0000 0.7000 0.2800
0.0200 0.7200 0.2800
0.0400 0.7400 0.2800
0.0600 0.7600 0.2800
0.0800 0.7799 0.2800
0.1000 0.7998 0.2800
0.1200 0.8197 0.2800
0.1400 0.8395 0.2800
0.1600 0.8593 0.2800
0.1800 0.8790 0.2800
0.2000 0.8987 0.2800
0.2200 0.9182 0.2800
0.2400 0.9377 0.2800
0.2600 0.9571 0.2800
0.2800 0.9764 0.2800
0.3000 0.9955 0.2800
0.3200 1.0146 0.2800
0.3400 1.0335 0.2800
0.3600 1.0523 0.2800
0.3800 1.0709 0.2800
0.4000 1.0894 0.2800
0.4200 1.1078 0.2800
0.4400 1.1259 0.2800
0.4600 1.1439 0.2800
0.4800 1.1618 0.2800
0.5000 1.1794 0.2800
0.5200 1.1969 0.2800
0.5400 1.2141 0.2800
0.5600 1.2312 0.2800
0.5800 1.2480 0.2800
0.6000 1.2646 0.2800
0.6200 1.2810 0.2800
0.6400 1.2972 0.2800
0.6600 1.3131 0.2800
0.6800 1.3288 0.2800
0.7000 1.3442 0.2800
0.7200 1.3594 0.2800
0.7400 1.3743 0.2800
0.7600 1.3889 0.2800
0.7800 1.4033 0.2800
0.8000 1.4174 0.2800
0.8200 1.4311 0.2800
0.8400 1.4446 0.2800
0.8600 1.4578 0.2800
0.8800 1.4707 0.2800
0.9000 1.4833 0.2800
0.9200 1.4956 0.2800
0.9400 1.5076 0.2800
0.9600 1.5192 0.2800
0.9800 1.5305 0.2800
1.0000 1.5415 0.2800
0.0000 0.7000 0.3000
0.0200 0.7200 0.3000
0.0400 0.7400 0.3000
0.0600 0.7600 0.3000
0.0800 0.7799 0.3000
0.1000 0.7998 0.3000
0.1200 0.8197 0.3000
0.1400 0.8395 0.3000
0.1600 0.8593 0.3000
0.1800 0.8790 0.3000
0.2000 0.8987 0.3000
0.2200 0.9182 0.3000
0.2400 0.9377 0.3000
0.2600 0.9571 0.3000
0.2800 0.9764 0.3000
0.3000 0.9955 0.3000
0.3200 1.0146 0.3000
0.3400 1.0335 0.3000
0.3600 1.0523 0.3000
0.3800 1.0709 0.3000
0.4000 1.0894 0.3000
0.4200 1.1078 0.3000
0.4400 1.1259 0.3000
0.4600 1.1439 0.3000
0.4800 1.1618 0.3000
0.5000 1.1794 0.3000
0.5200 1.1969 0.3000
0.5400 1.2141 0.3000
0.5600 1.2312 0.3000
0.5800 1.2480 0.3000
0.6000 1.2646 0.3000
0.6200 1.2810 0.3000
0.6400 1.2972 0.3000
0.6600 1.3131 0.3000
0.6800 1.3288 0.3000
0.7000 1.3442 0.3000
0.7200 1.3594 0.3000
0.7400 1.3743 0.3000
0.7600 1.3889 0.3000
0.7800 1.4033 0.3000
0.8000 1.4174 0.3000
0.8200 1.4311 0.3000
0.8400 1.4446 0.3000
0.8600 1.4578 0.3000
0.8800 1.4707 0.3000
0.9000 1.4833 0.3000
0.9200 1.4956 0.3000
0.9400 1.5076 0.3000
0.9600 1.5192 0.3000
0.9800 1.5305 0.3000
1.0000 1.5415 0.3000
0.0000 0.7000 0.3200
0.0200 0.7200 0.3200
0.0400 0.7400 0.3200
0.0600 0.7600 0.3200
0.0800 0.7799 0.3200
0.1000 0.7998 0.3200
0.1200 0.8197 0.3200
0.1400 0.8395 0.3200
0.1600 0.8593 0.3200
0.1800 0.8790 0.3200
0.2000 0.8987 0.3200
0.2200 0.9182 0.3200
0.2400 0.9377 0.3200
0.2600 0.9571 0.3200
0.2800 0.9764 0.3200
0.3000 0.9955 0.3200
0.3200 1.0146 0.3200
0.3400 1.0335 0.3200
0.3600 1.0523 0.3200
0.3800 1.0709 0.3200
0.4000 1.0894 0.3200
0.4200 1.1078 0.3200
0.4400 1.1259 0.3200
0.4600 1.1439 0.3200
0.4800 1.1618 0.3200
0.5000 1.1794 0.3200
0.5200 1.1969 0.3200
0.5400 1.2141 0.3200
0.5600 1.2312 0.3200
0.5800 1.2480 0.3200
0.6000 1.2646 0.3200
0.6200 1.2810 0.3200
0.6400 1.2972 0.3200
0.6600 1.3131 0.3200
0.6800 1.3288 0.3200
0.7000 1.3442 0.3200
0.7200 1.3594 0.3200
0.7400 1.3743 0.3200
0.7600 1.3889 0.3200
0.7800 1.4033 0.3200
0.8000 1.4174 0.3200
0.8200 1.4311 0.3200
0.8400 1.4446 0.3200
0.8600 1.4578 0.3200
0.8800 1.4707 0.3200
0.9000 1.4833 0.3200
0.9200 1.4956 0.3200
0.9400 1.5076 0.3200
0.9600 1.5192 0.3200
0.9800 1.5305 0.3200
1.0000 1.5415 0.3200
0.0000 0.7000 0.3400
0.0200 0.7200 0.3400
0.0400 0.7400 0.3400
0.0600 0.7600 0.3400
0.0800 0.7799 0.3400
0.1000 0.7998 0.3400
0.1200 0.8197 0.3400
0.1400 0.8395 0.3400
0.1600 0.8593 0.3400
0.1800 0.8790 0.3400
0.2000 0.8987 0.3400
0.2200 0.9182 0.3400
0.2400 0.9377 0.3400
0.2600 0.9571 0.3400
0.2800 0.9764 0.3400
0.3000 0.9955 0.3400
0.3200 1.0146 0.3400
0.3400 1.0335 0.3400
0.3600 1.0523 0.3400
0.3800 1.0709 0.3400
0.4000 1.0894 0.3400
0.4200 1.1078 0.3400
0.4400 1.1259 0.3400
0.4600 1.1439 0.3400
0.4800 1.1618 0.3400
0.5000 1.1794 0.3400
0.5200 1.1969 0.3400
0.5400 1.2141 0.3400
0.5600 1.2312 0.3400
0.5800 1.2480 0.3400
0.6000 1.2646 0.3400
0.6200 1.2810 0.3400
0.6400 1.2972 0.3400
0.6600 1.3131 0.3400
0.6800 1.3288 0.3400
0.7000 1.3442 0.3400
0.7200 1.3594 0.3400
0.7400 1.3743 0.3400
0.7600 1.3889 0.3400
0.7800 1.4033 0.3400
0.8000 1.4174 0.3400
0.8200 1.4311 0.3400
0.8400 1.4446 0.3400
0.8600 1.4578 0.3400
0.8800 1.4707 0.3400
0.9000 1.4833 0.3400
0.9200 1.4956 0.3400
0.9400 1.5076 0.3400
0.9600 1.5192 0.3400
0.9800 1.5305 0.3400
1.0000 1.5415 0.3400
0.0000 0.7000 0.3600
0.0200 0.7200 0.3600
0.0400 0.7400 0.3600
0.0600 0.7600 0.3600
0.0800 0.7799 0.3600
0.1000 0.7998 0.3600
0.1200 0.8197 0.3600
0.1400 0.8395 0.3600
0.1600 0.8593 0.3600
0.1800 0.8790 0.3600
0.2000 0.8987 0.3600
0.2200 0.9182 0.3600
0.2400 0.9377 0.3600
0.2600 0.9571 0.3600
0.2800 0.9764 0.3600
0.3000 0.9955 0.3600
0.3200 1.0146 0.3600
0.3400 1.0335 0.3600
0.3600 1.0523 0.3600
0.3800 1.0709 0.3600
0.4000 1.0894 0.3600
0.4200 1.1078 0.3600
0.4400 1.1259 0.3600
0.4600 1.1439 0.3600
0.4800 1.1618 0.3600
0.5000 1.1794 0.3600
0.5200 1.1969 0.3600
0.5400 1.2141 0.3600
0.5600 1.2312 0.3600
0.5800 1.2480 0.3600
0.6000 1.2646 0.3600
0.6200 1.2810 0.3600
0.6400 1.2972 0.3600
0.6600 1.3131 0.3600
0.6800 1.3288 0.3600
0.7000 1.3442 0.3600
0.7200 1.3594 0.3600
0.7400 1.3743 0.3600
0.7600 1.3889 0.3600
0.7800 1.4033 0.3600
0.8000 1.4174 0.3600
0.8200 1.4311 0.3600
0.8400 1.4446 0.3600
0.8600 1.4578 0.3600
0.8800 1.4707 0.3600
0.9000 1.4833 0.3600
0.9200 1.4956 0.3600
0.9400 1.5076 0.3600
0.9600 1.5192 0.3600
0.9800 1.5305 0.3600
1.0000 1.5415 0.3600
0.0000 0.7000 0.3800
0.0200 0.7200 0.3800
0.0400 0.7400 0.3800
0.0600 0.7600 0.3800
0.0800 0.7799 0.3800
0.1000 0.7998 0.3800
0.1200 0.8197 0.3800
0.1400 0.8395 0.3800
0.1600 0.8593 0.3800
0.1800 0.8790 0.3800
0.2000 0.8987 0.3800
0.2200 0.9182 0.3800
0.2400 0.9377 0.3800
0.2600 0.9571 0.3800
0.2800 0.9764 0.3800
0.3000 0.9955 0.3800
0.3200 1.0146 0.3800
0.3400 1.0335 0.3800
0.3600 1.0523 0.3800
0.3800 1.0709 0.3800
0.4000 1.0894 0.3800
0.4200 1.1078 0.3800
0.4400 1.1259 0.3800
0.4600 1.1439 0.3800
0.4800 1.1618 0.3800
0.5000 1.1794 0.3800
0.5200 1.1969 0.3800
0.5400 1.2141 0.3800
0.5600 1.2312 0.3800
0.5800 1.2480 0.3800
0.6000 1.2646 0.3800
0.6200 1.2810 0.3800
0.6400 1.2972 0.3800
0.6600 1.3131 0.3800
0.6800 1.3288 0.3800
0.7000 1.3442 0.3800
0.7200 1.3594 0.3800
0.7400 1.3743 0.3800
0.7600 1.3889 0.3800
0.7800 1.4033 0.3800
0.8000 1.4174 0.3800
0.8200 1.4311 0.3800
0.8400 1.4446 0.3800
0.8600 1.4578 0.3800
0.8800 1.4707 0.3800
0.9000 1.4833 0.3800
0.9200 1.4956 0.3800
0.9400 1.5076 0.3800
0.9600 1.5192 0.3800
0.9800 1.5305 0.3800
1.0000 1.5415 0.3800
0.0000 0.7000 0.4000
0.0200 0.7200 0.4000
0.0400 0.7400 0.4000
0.0600 0.7600 0.4000
0.0800 0.7799 0.4000
0.1000 0.7998 0.4000
0.1200 0.8197 0.4000
0.1400 0.8395 0.4000
0.1600 0.8593 0.4000
0.1800 0.8790 0.4000
0.2000 0.8987 0.4000
0.2200 0.9182 0.4000
0.2400 0.9377 0.4000
0.2600 0.9571 0.4000
0.2800 0.9764 0.4000
0.3000 0.9955 0.4000
0.3200 1.0146 0.4000
0.3400 1.0335 0.4000
0.3600 1.0523 0.4000
0.3800 1.0709 0.4000
0.4000 1.0894 0.4000
0.4200 1.1078 0.4000
0.4400 1.1259 0.4000
0.4600 1.1439 0.4000
0.4800 1.1618 0.4000
0.5000 1.1794 0.4000
0.5200 1.1969 0.4000
0.5400 1.2141 0.4000
0.5600 1.2312 0.4000
0.5800 1.2480 0.4000
0.6000 1.2646 0.4000
0.6200 1.2810 0.4000
0.6400 1.2972 0.4000
0.6600 1.3131 0.4000
0.6800 1.3288 0.4000
0.7000 1.3442 0.4000
0.7200 1.3594 0.4000
0.7400 1.3743 0.4000
0.7600 1.3889 0.4000
0.7800 1.4033 0.4000
0.8000 1.4174 0.4000
0.8200 1.4311 0.4000
0.8400 1.4446 0.4000
0.8600 1.4578 0.4000
0.8800 1.4707 0.4000
0.9000 1.4833 0.4000
0.9200 1.4956 0.4000
0.9400 1.5076 0.4000
0.9600 1.5192 0.4000
0.9800 1.5305 0.4000
1.0000 1.5415 0.4000
0.0000 0.7000 0.4200
0.0200 0.7200 0.4200
0.0400 0.7400 0.4200
0.0600 0.7600 0.4200
0.0800 0.7799 0.4200
0.1000 0.7998 0.4200
0.1200 0.8197 0.4200
0.1400 0.8395 0.4200
0.1600 0.8593 0.4200
0.1800 0.8790 0.4200
0.2000 0.8987 0.4200
0.2200 0.9182 0.4200
0.2400 0.9377 0.4200
0.2600 0.9571 0.4200
0.2800 0.9764 0.4200
0.3000 0.9955 0.4200
0.3200 1.0146 0.4200
0.3400 1.0335 0.4200
0.3600 1.0523 0.4200
0.3800 1.0709 0.4200
0.4000 1.0894 0.4200
0.4200 1.1078 0.4200
0.4400 1.1259 0.4200
0.4600 1.1439 0.4200
0.4800 1.1618 0.4200
0.5000 1.1794 0.4200
0.5200 1.1969 0.4200
0.5400 1.2141 0.4200
0.5600 1.2312 0.4200
0.5800 1.2480 0.4200
0.6000 1.2646 0.4200
0.6200 1.2810 0.4200
0.6400 1.2972 0.4200
0.6600 1.3131 0.4200
0.6800 1.3288 0.4200
0.7000 1.3442 0.4200
0.7200 1.3594 0.4200
0.7400 1.3743 0.4200
0.7600 1.3889 0.4200
0.7800 1.4033 0.4200
0.8000 1.4174 0.4200
0.8200 1.4311 0.4200
0.8400 1.4446 0.4200
0.8600 1.4578 0.4200
0.8800 1.4707 0.4200
0.9000 1.4833 0.4200
0.9200 1.4956 0.4200
0.9400 1.5076 0.4200
0.9600 1.5192 0.4200
0.9800 1.5305 0.4200
1.0000 1.5415 0.4200
0.0000 0.7000 0.4400
0.0200 0.7200 0.4400
0.0400 0.7400 0.4400
0.0600 0.7600 0.4400
0.0800 0.7799 0.4400
0.1000 0.7998 0.4400
0.1200 0.8197 0.4400
0.1400 0.8395 0.4400
0.1600 0.8593 0.4400
0.1800 0.8790 0.4400
0.2000 0.8987 0.4400
0.2200 0.9182 0.4400
0.2400 0.9377 0.4400
0.2600 0.9571 0.4400
0.2800 0.9764 0.4400
0.3000 0.9955 0.4400
0.3200 1.0146 0.4400
0.3400 1.0335 0.4400
0.3600 1.0523 0.4400
0.3800 1.0709 0.4400
0.4000 1.0894 0.4400
0.4200 1.1078 0.4400
0.4400 1.1259 0.4400
0.4600 1.1439 0.4400
0.4800 1.1618 0.4400
0.5000 1.1794 0.4400
0.5200 1.1969 0.4400
0.5400 1.2141 0.4400
0.5600 1.2312 0.4400
0.5800 1.2480 0.4400
0.6000 1.2646 0.4400
0.6200 1.2810 0.4400
0.6400 1.2972 0.4400
0.6600 1.3131 0.4400
0.6800 1.3288 0.4400
0.7000 1.3442 0.4400
0.7200 1.3594 0.4400
0.7400 1.3743 0.4400
0.7600 1.3889 0.4400
0.7800 1.4033 0.4400
0.8000 1.4174 0.4400
0.8200 1.4311 0.4400
0.8400 1.4446 0.4400
0.8600 1.4578 0.4400
0.8800 1.4707 0.4400
0.9000 1.4833 0.4400
0.9200 1.4956 0.4400
0.9400 1.5076 0.4400
0.9600 1.5192 0.4400
0.9800 1.5305 0.4400
1.0000 1.5415 0.4400
0.0000 0.7000 0.4600
0.0200 0.7200 0.4600
0.0400 0.7400 0.4600
0.0600 0.7600 0.4600
0.0800 0.7799 0.4600
0.1000 0.7998 0.4600
0.1200 0.8197 0.4600
0.1400 0.8395 0.4600
0.1600 0.8593 0.4600
0.1800 0.8790 0.4600
0.2000 0.8987 0.4600
0.2200 0.9182 0.4600
0.2400 0.9377 0.4600
0.2600 0.9571 0.4600
0.2800 0.9764 0.4600
0.3000 0.9955 0.4600
0.3200 1.0146 0.4600
0.3400 1.0335 0.4600
0.3600 1.0523 0.4600
0.3800 1.0709 0.4600
0.4000 1.0894 0.4600
0.4200 1.1078 0.4600
0.4400 1.1259 0.4600
0.4600 1.1439 0.4600
0.4800 1.1618 0.4600
0.5000 1.1794 0.4600
0.5200 1.1969 0.4600
0.5400 1.2141 0.4600
0.5600 1.2312 0.4600
0.5800 1.2480 0.4600
0.6000 1.2646 0.4600
0.6200 1.2810 0.4600
0.6400 1.2972 0.4600
0.6600 1.3131 0.4600
0.6800 1.3288 0.4600
0.7000 1.3442 0.4600
0.7200 1.3594 0.4600
0.7400 1.3743 0.4600
0.7600 1.3889 0.4600
0.7800 1.4033 0.4600
0.8000 1.4174 0.4600
0.8200 1.4311 0.4600
0.8400 1.4446 0.4600
0.8600 1.4578 0.4600
0.8800 1.4707 0.4600
0.9000 1.4833 0.4600
0.9200 1.4956 0.4600
0.9400 1.5076 0.4600
0.9600 1.5192 0.4600
0.9800 1.5305 0.4600
1.0000 1.5415 0.4600
0.0000 0.7000 0.4800
0.0200 0.7200 0.4800
0.0400 0.7400 0.4800
0.0600 0.7600 0.4800
0.0800 0.7799 0.4800
0.1000 0.7998 0.4800
0.1200 0.8197 0.4800
0.1400 0.8395 0.4800
0.1600 0.8593 0.4800
0.1800 0.8790 0.4800
0.2000 0.8987 0.4800
0.2200 0.9182 0.4800
0.2400 0.9377 0.4800
0.2600 0.9571 0.4800
0.2800 0.9764 0.4800
0.3000 0.9955 0.4800
0.3200 1.0146 0.4800
0.3400 1.0335 0.4800
0.3600 1.0523 0.4800
0.3800 1.0709 0.4800
0.4000 1.0894 0.4800
0.4200 1.1078 0.4800
0.4400 1.1259 0.4800
0.4600 1.1439 0.4800
0.4800 1.1618 0.4800
0.5000 1.1794 0.4800
0.5200 1.1969 0.4800
0.5400 1.2141 0.4800
0.5600 1.2312 0.4800
0.5800 1.2480 0.4800
0.6000 1.2646 0.4800
0.6200 1.2810 0.4800
0.6400 1.2972 0.4800
0.6600 1.3131 0.4800
0.6800 1.3288 0.4800
0.7000 1.3442 0.4800
0.7200 1.3594 0.4800
0.7400 1.3743 0.4800
0.7600 1.3889 0.4800
0.7800 1.4033 0.4800
0.8000 1.4174 0.4800
0.8200 1.4311 0.4800
0.8400 1.4446 0.4800
0.8600 1.4578 0.4800
0.8800 1.4707 0.4800
0.9000 1.4833 0.4800
0.9200 1.4956 0.4800
0.9400 1.5076 0.4800
0.9600 1.5192 0.4800
0.9800 1.5305 0.4800
1.0000 1.5415 0.4800
0.0000 0.7000 0.5000
0.0200 0.7200 0.5000
0.0400 0.7400 0.5000
0.0600 0.7600 0.5000
0.0800 0.7799 0.5000
0.1000 0.7998 0.5000
0.1200 0.8197 0.5000
0.1400 0.8395 0.5000
0.1600 0.8593 0.5000
0.1800 0.8790 0.5000
0.2000 0.8987 0.5000
0.2200 0.9182 0.5000
0.2400 0.9377 0.5000
0.2600 0.9571 0.5000
0.2800 0.9764 0.5000
0.3000 0.9955 0.5000
0.3200 1.0146 0.5000
0.3400 1.0335 0.5000
0.3600 1.0523 0.5000
0.3800 1.0709 0.5000
0.4000 1.0894 0.5000
0.4200 1.1078 0.5000
0.4400 1.1259 0.5000
0.4600 1.1439 0.5000
0.4800 1.1618 0.5000
0.5000 1.1794 0.5000
0.5200 1.1969 0.5000
0.5400 1.2141 0.5000
0.5600 1.2312 0.5000
0.5800 1.2480 0.5000
0.6000 1.2646 0.5000
0.6200 1.2810 0.5000
0.6400 1.2972 0.5000
0.6600 1.3131 0.5000
0.6800 1.3288 0.5000
0.7000 1.3442 0.5000
0.7200 1.3594 0.5000
0.7400 1.3743 0.5000
0.7600 1.3889 0.5000
0.7800 1.4033 0.5000
0.8000 1.4174 0.5000
0.8200 1.4311 0.5000
0.8400 1.4446 0.5000
0.8600 1.4578 0.5000
0.8800 1.4707 0.5000
0.9000 1.4833 0.5000
0.9200 1.4956 0.5000
0.9400 1.5076 0.5000
0.9600 1.5192 0.5000
0.9800 1.5305 0.5000
1.0000 1.5415 0.5000
0.0000 0.7000 0.5200
0.0200 0.7200 0.5200
0.0400 0.7400 0.5200
0.0600 0.7600 0.5200
0.0800 0.7799 0.5200
0.1000 0.7998 0.5200
0.1200 0.8197 0.5200
0.1400 0.8395 0.5200
0.1600 0.8593 0.5200
0.1800 0.8790 0.5200
0.2000 0.8987 0.5200
0.2200 0.9182 0.5200
0.2400 0.9377 0.5200
0.2600 0.9571 0.5200
0.2800 0.9764 0.5200
0.3000 0.9955 0.5200
0.3200 1.0146 0.5200
0.3400 1.0335 0.5200
0.3600 1.0523 0.5200
0.3800 1.0709 0.5200
0.4000 1.0894 0.5200
0.4200 1.1078 0.5200
0.4400 1.1259 0.5200
0.4600 1.1439 0.5200
0.4800 1.1618 0.5200
0.5000 1.1794 0.5200
0.5200 1.1969 0.5200
0.5400 1.2141 0.5200
0.5600 1.2312 0.5200
0.5800 1.2480 0.5200
0.6000 1.2646 0.5200
0.6200 1.2810 0.5200
0.6400 1.2972 0.5200
0.6600 1.3131 0.5200
0.6800 1.3288 0.5200
0.7000 1.3442 0.5200
0.7200 1.3594 0.5200
0.7400 1.3743 0.5200
0.7600 1.3889 0.5200
0.7800 1.4033 0.5200
0.8000 1.4174 0.5200
0.8200 1.4311 0.5200
0.8400 1.4446 0.5200
0.8600 1.4578 0.5200
0.8800 1.4707 0.5200
0.9000 1.4833 0.5200
0.9200 1.4956 0.5200
0.9400 1.5076 0.5200
0.9600 1.5192 0.5200
0.9800 1.5305 0.5200
1.0000 1.5415 0.5200
0.0000 0.7000 0.5400
0.0200 0.7200 0.5400
0.0400 0.7400 0.5400
0.0600 0.7600 0.5400
0.0800 0.7799 0.5400
0.1000 0.7998 0.5400
0.1200 0.8197 0.5400
0.1400 0.8395 0.5400
0.1600 0.8593 0.5400
0.1800 0.8790 0.5400
0.2000 0.8987 0.5400
0.2200 0.9182 0.5400
0.2400 0.9377 0.5400
0.2600 0.9571 0.5400
0.2800 0.9764 0.5400
0.3000 0.9955 0.5400
0.3200 1.0146 0.5400
0.3400 1.0335 0.5400
0.3600 1.0523 0.5400
0.3800 1.0709 0.5400
0.4000 1.0894 0.5400
0.4200 1.1078 0.5400
0.4400 1.1259 0.5400
0.4600 1.1439 0.5400
0.4800 1.1618 0.5400
0.5000 1.1794 0.5400
0.5200 1.1969 0.5400
0.5400 1.2141 0.5400
0.5600 1.2312 0.5400
0.5800 1.2480 0.5400
0.6000 1.2646 0.5400
0.6200 1.2810 0.5400
0.6400 1.2972 0.5400
0.6600 1.3131 0.5400
0.6800 1.3288 0.5400
0.7000 1.3442 0.5400
0.7200 1.3594 0.5400
0.7400 1.3743 0.5400
0.7600 1.3889 0.5400
0.7800 1.4033 0.5400
0.8000 1.4174 0.5400
0.8200 1.4311 0.5400
0.8400 1.4446 0.5400
0.8600 1.4578 0.5400
0.8800 1.4707 0.5400
0.9000 1.4833 0.5400
0.9200 1.4956 0.5400
0.9400 1.5076 0.5400
0.9600 1.5192 0.5400
0.9800 1.5305 0.5400
1.0000 1.5415 0.5400
0.0000 0.7000 0.5600
0.0200 0.7200 0.5600
0.0400 0.7400 0.5600
0.0600 0.7600 0.5600
0.0800 0.7799 0.5600
0.1000 0.7998 0.5600
0.1200 0.8197 0.5600
0.1400 0.8395 0.5600
0.1600 0.8593 0.5600
0.1800 0.8790 0.5600
0.2000 0.8987 0.5600
0.2200 0.9182 0.5600
0.2400 0.9377 0.5600
0.2600 0.9571 0.5600
0.2800 0.9764 0.5600
0.3000 0.9955 0.5600
0.3200 1.0146 0.5600
0.3400 1.0335 0.5600
0.3600 1.0523 0.5600
0.3800 1.0709 0.5600
0.4000 1.0894 0.5600
0.4200 1.1078 0.5600
0.4400 1.1259 0.5600
0.4600 1.1439 0.5600
0.4800 1.1618 0.5600
0.5000 1.1794 0.5600
0.5200 1.1969 0.5600
0.5400 1.2141 0.5600
0.5600 1.2312 0.5600
0.5800 1.2480 0.5600
0.6000 1.2646 0.5600
0.6200 1.2810 0.5600
0.6400 1.2972 0.5600
0.6600 1.3131 0.5600
0.6800 1.3288 0.5600
0.7000 1.3442 0.5600
0.7200 1.3594 0.5600
0.7400 1.3743 0.5600
0.7600 1.3889 0.5600
0.7800 1.4033 0.5600
0.8000 1.4174 0.5600
0.8200 1.4311 0.5600
0.8400 1.4446 0.5600
0.8600 1.4578 0.5600
0.8800 1.4707 0.5600
0.9000 1.4833 0.5600
0.9200 1.4956 0.5600
0.9400 1.5076 0.5600
0.9600 1.5192 0.5600
0.9800 1.5305 0.5600
1.0000 1.5415 0.5600
0.0000 0.7000 0.5800
0.0200 0.7200 0.5800
0.0400 0.7400 0.5800
0.0600 0.7600 0.5800
0.0800 0.7799 0.5800
0.1000 0.7998 0.5800
0.1200 0.8197 0.5800
0.1400 0.8395 0.5800
0.1600 0.8593 0.5800
0.1800 0.8790 0.5800
0.2000 0.8987 0.5800
0.2200 0.9182 0.5800
0.2400 0.9377 0.5800
0.2600 0.9571 0.5800
0.2800 0.9764 0.5800
0.3000 0.9955 0.5800
0.3200 1.0146 0.5800
0.3400 1.0335 0.5800
0.3600 1.0523 0.5800
0.3800 1.0709 0.5800
0.4000 1.0894 0.5800
0.4200 1.1078 0.5800
0.4400 1.1259 0.5800
0.4600 1.1439 0.5800
0.4800 1.1618 0.5800
0.5000 1.1794 0.5800
0.5200 1.1969 0.5800
0.5400 1.2141 0.5800
0.5600 1.2312 0.5800
0.5800 1.2480 0.5800
0.6000 1.2646 0.5800
0.6200 1.2810 0.5800
0.6400 1.2972 0.5800
0.6600 1.3131 0.5800
0.6800 1.3288 0.5800
0.7000 1.3442 0.5800
0.7200 1.3594 0.5800
0.7400 1.3743 0.5800
0.7600 1.3889 0.5800
0.7800 1.4033 0.5800
0.8000 1.4174 0.5800
0.8200 1.4311 0.5800
0.8400 1.4446 0.5800
0.8600 1.4578 0.5800
0.8800 1.4707 0.5800
0.9000 1.4833 0.5800
0.9200 1.4956 0.5800
0.9400 1.5076 0.5800
0.9600 1.5192 0.5800
0.9800 1.5305 0.5800
1.0000 1.5415 0.5800
0.0000 0.7000 0.6000
0.0200 0.7200 0.6000
0.0400 0.7400 0.6000
0.0600 0.7600 0.6000
0.0800 0.7799 0.6000
0.1000 0.7998 0.6000
0.1200 0.8197 0.6000
0.1400 0.8395 0.6000
0.1600 0.8593 0.6000
0.1800 0.8790 0.6000
0.2000 0.8987 0.6000
0.2200 0.9182 0.6000
0.2400 0.9377 0.6000
0.2600 0.9571 0.6000
0.2800 0.9764 0.6000
0.3000 0.9955 0.6000
0.3200 1.0146 0.6000
0.3400 1.0335 0.6000
0.3600 1.0523 0.6000
0.3800 1.0709 0.6000
0.4000 1.0894 0.6000
0.4200 1.1078 0.6000
0.4400 1.1259 0.6000
0.4600 1.1439 0.6000
0.4800 1.1618 0.6000
0.5000 1.1794 0.6000
0.5200 1.1969 0.6000
0.5400 1.2141 0.6000
0.5600 1.2312 0.6000
0.5800 1.2480 0.6000
0.6000 1.2646 0.6000
0.6200 1.2810 0.6000
0.6400 1.2972 0.6000
0.6600 1.3131 0.6000
0.6800 1.3288 0.6000
0.7000 1.3442 0.6000
0.7200 1.3594 0.6000
0.7400 1.3743 0.6000
0.7600 1.3889 0.6000
0.7800 1.4033 0.6000
0.8000 1.4174 0.6000
0.8200 1.4311 0.6000
0.8400 1.4446 0.6000
0.8600 1.4578 0.6000
0.8800 1.4707 0.6000
0.9000 1.4833 0.6000
0.9200 1.4956 0.6000
0.9400 1.5076 0.6000
0.9600 1.5192 0.6000
0.9800 1.5305 0.6000
1.0000 1.5415 0.6000
0.0000 0.7000 0.6200
0.0200 0.7200 0.6200
0.0400 0.7400 0.6200
0.0600 0.7600 0.6200
0.0800 0.7799 0.6200
0.1000 0.7998 0.6200
0.1200 0.8197 0.6200
0.1400 0.8395 0.6200
0.1600 0.8593 0.6200
0.1800 0.8790 0.6200
0.2000 0.8987 0.6200
0.2200 0.9182 0.6200
0.2400 0.9377 0.6200
0.2600 0.9571 0.6200
0.2800 0.9764 0.6200
0.3000 0.9955 0.6200
0.3200 1.0146 0.6200
0.3400 1.0335 0.6200
0.3600 1.0523 0.6200
0.3800 1.0709 0.6200
0.4000 1.0894 0.6200
0.4200 1.1078 0.6200
0.4400 1.1259 0.6200
0.4600 1.1439 0.6200
0.4800 1.1618 0.6200
0.5000 1.1794 0.6200
0.5200 1.1969 0.6200
0.5400 1.2141 0.6200
0.5600 1.2312 0.6200
0.5800 1.2480 0.6200
0.6000 1.2646 0.6200
0.6200 1.2810 0.6200
0.6400 1.2972 0.6200
0.6600 1.3131 0.6200
0.6800 1.3288 0.6200
0.7000 1.3442 0.6200
0.7200 1.3594 0.6200
0.7400 1.3743 0.6200
0.7600 1.3889 0.6200
0.7800 1.4033 0.6200
0.8000 1.4174 0.6200
0.8200 1.4311 0.6200
0.8400 1.4446 0.6200
0.8600 1.4578 0.6200
0.8800 1.4707 0.6200
0.9000 1.4833 0.6200
0.9200 1.4956 0.6200
0.9400 1.5076 0.6200
0.9600 1.5192 0.6200
0.9800 1.5305 0.6200
1.0000 1.5415 0.6200
0.0000 0.7000 0.6400
0.0200 0.7200 0.6400
0.0400 0.7400 0.6400
0.0600 0.7600 0.6400
0.0800 0.7799 0.6400
0.1000 0.7998 0.6400
0.1200 0.8197 0.6400
0.1400 0.8395 0.6400
0.1600 0.8593 0.6400
0.1800 0.8790 0.6400
0.2000 0.8987 0.6400
0.2200 0.9182 0.6400
0.2400 0.9377 0.6400
0.2600 0.9571 0.6400
0.2800 0.9764 0.6400
0.3000 0.9955 0.6400
0.3200 1.0146 0.6400
0.3400 1.0335 0.6400
0.3600 1.0523 0.6400
0.3800 1.0709 0.6400
0.4000 1.0894 0.6400
0.4200 1.1078 0.6400
0.4400 1.1259 0.6400
0.4600 1.1439 0.6400
0.4800 1.1618 0.6400
0.5000 1.1794 0.6400
0.5200 1.1969 0.6400
0.5400 1.2141 0.6400
0.5600 1.2312 0.6400
0.5800 1.2480 0.6400
0.6000 1.2646 0.6400
0.6200 1.2810 0.6400
0.6400 1.2972 0.6400
0.6600 1.3131 0.6400
0.6800 1.3288 0.6400
0.7000 1.3442 0.6400
0.7200 1.3594 0.6400
0.7400 1.3743 0.6400
0.7600 1.3889 0.6400
0.7800 1.4033 0.6400
0.8000 1.4174 0.6400
0.8200 1.4311 0.6400
0.8400 1.4446 0.6400
0.8600 1.4578 0.6400
0.8800 1.4707 0.6400
0.9000 1.4833 0.6400
0.9200 1.4956 0.6400
0.9400 1.5076 0.6400
0.9600 1.5192 0.6400
0.9800 1.5305 0.6400
1.0000 1.5415 0.6400
0.0000 0.7000 0.6600
0.0200 0.7200 0.6600
0.0400 0.7400 0.6600
0.0600 0.7600 0.6600
0.0800 0.7799 0.6600
0.1000 0.7998 0.6600
0.1200 0.8197 0.6600
0.1400 0.8395 0.6600
0.1600 0.8593 0.6600
0.1800 0.8790 0.6600
0.2000 0.8987 0.6600
0.2200 0.9182 0.6600
0.2400 0.9377 0.6600
0.2600 0.9571 0.6600
0.2800 0.9764 0.6600
0.3000 0.9955 0.6600
0.3200 1.0146 0.6600
0.3400 1.0335 0.6600
0.3600 1.0523 0.6600
0.3800 1.0709 0.6600
0.4000 1.0894 0.6600
0.4200 1.1078 0.6600
0.4400 1.1259 0.6600
0.4600 1.1439 0.6600
0.4800 1.1618 0.6600
0.5000 1.1794 0.6600
0.5200 1.1969 0.6600
0.5400 1.2141 0.6600
0.5600 1.2312 0.6600
0.5800 1.2480 0.6600
0.6000 1.2646 0.6600
0.6200 1.2810 0.6600
0.6400 1.2972 0.6600
0.6600 1.3131 0.6600
0.6800 1.3288 0.6600
0.7000 1.3442 0.6600
0.7200 1.3594 0.6600
0.7400 1.3743 0.6600
0.7600 1.3889 0.6600
0.7800 1.4033 0.6600
0.8000 1.4174 0.6600
0.8200 1.4311 0.6600
0.8400 1.4446 0.6600
0.8600 1.4578 0.6600
0.8800 1.4707 0.6600
0.9000 1.4833 0.6600
0.9200 1.4956 0.6600
0.9400 1.5076 0.6600
0.9600 1.5192 0.6600
0.9800 1.5305 0.6600
1.0000 1.5415 0.6600
0.0000 0.7000 0.6800
0.0200 0.7200 0.6800
0.0400 0.7400 0.6800
0.0600 0.7600 0.6800
0.0800 0.7799 0.6800
0.1000 0.7998 0.6800
0.1200 0.8197 0.6800
0.1400 0.8395 0.6800
0.1600 0.8593 0.6800
0.1800 0.8790 0.6800
0.2000 0.8987 0.6800
0.2200 0.9182 0.6800
0.2400 0.9377 0.6800
0.2600 0.9571 0.6800
0.2800 0.9764 0.6800
0.3000 0.9955 0.6800
0.3200 1.0146 0.6800
0.3400 1.0335 0.6800
0.3600 1.0523 0.6800
0.3800 1.0709 0.6800
0.4000 1.0894 0.6800
0.4200 1.1078 0.6800
0.4400 1.1259 0.6800
0.4600 1.1439 0.6800
0.4800 1.1618 0.6800
0.5000 1.1794 0.6800
0.5200 1.1969 0.6800
0.5400 1.2141 0.6800
0.5600 1.2312 0.6800
0.5800 1.2480 0.6800
0.6000 1.2646 0.6800
0.6200 1.2810 0.6800
0.6400 1.2972 0.6800
0.6600 1.3131 0.6800
0.6800 1.3288 0.6800
0.7000 1.3442 0.6800
0.7200 1.3594 0.6800
0.7400 1.3743 0.6800
0.7600 1.3889 0.6800
0.7800 1.4033 0.6800
0.8000 1.4174 0.6800
0.8200 1.4311 0.6800
0.8400 1.4446 0.6800
0.8600 1.4578 0.6800
0.8800 1.4707 0.6800
0.9000 1.4833 0.6800
0.9200 1.4956 0.6800
0.9400 1.5076 0.6800
0.9600 1.5192 0.6800
0.9800 1.5305 0.6800
1.0000 1.5415 0.6800
0.0000 0.7000 0.7000
0.0200 0.7200 0.7000
0.0400 0.7400 0.7000
0.0600 0.7600 0.7000
0.0800 0.7799 0.7000
0.1000 0.7998 0.7000
0.1200 0.8197 0.7000
0.1400 0.8395 0.7000
0.1600 0.8593 0.7000
0.1800 0.8790 0.7000
0.2000 0.8987 0.7000
0.2200 0.9182 0.7000
0.2400 0.9377 0.7000
0.2600 0.9571 0.7000
0.2800 0.9764 0.7000
0.3000 0.9955 0.7000
0.3200 1.0146 0.7000
0.3400 1.0335 0.7000
0.3600 1.0523 0.7000
0.3800 1.0709 0.7000
0.4000 1.0894 0.7000
0.4200 1.1078 0.7000
0.4400 1.1259 0.7000
0.4600 1.1439 0.7000
0.4800 1.1618 0.7000
0.5000 1.1794 0.7000
0.5200 1.1969 0.7000
0.5400 1.2141 0.7000
0.5600 1.2312 0.7000
0.5800 1.2480 0.7000
0.6000 1.2646 0.7000
0.6200 1.2810 0.7000
0.6400 1.2972 0.7000
0.6600 1.3131 0.7000
0.6800 1.3288 0.7000
0.7000 1.3442 0.7000
0.7200 1.3594 0.7000
0.7400 1.3743 0.7000
0.7600 1.3889 0.7000
0.7800 1.4033 0.7000
0.8000 1.4174 0.7000
0.8200 1.4311 0.7000
0.8400 1.4446 0.7000
0.8600 1.4578 0.7000
0.8800 1.4707 0.7000
0.9000 1.4833 0.7000
0.9200 1.4956 0.7000
0.9400 1.5076 0.7000
0.9600 1.5192 0.7000
0.9800 1.5305 0.7000
1.0000 1.5415 0.7000
0.0000 0.7000 0.7200
0.0200 0.7200 0.7200
0.0400 0.7400 0.7200
0.0600 0.7600 0.7200
0.0800 0.7799 0.7200
0.1000 0.7998 0.7200
0.1200 0.8197 0.7200
0.1400 0.8395 0.7200
0.1600 0.8593 0.7200
0.1800 0.8790 0.7200
0.2000 0.8987 0.7200
0.2200 0.9182 0.7200
0.2400 0.9377 0.7200
0.2600 0.9571 0.7200
0.2800 0.9764 0.7200
0.3000 0.9955 0.7200
0.3200 1.0146 0.7200
0.3400 1.0335 0.7200
0.3600 1.0523 0.7200
0.3800 1.0709 0.7200
0.4000 1.0894 0.7200
0.4200 1.1078 0.7200
0.4400 1.1259 0.7200
0.4600 1.1439 0.7200
0.4800 1.1618 0.7200
0.5000 1.1794 0.7200
0.5200 1.1969 0.7200
0.5400 1.2141 0.7200
0.5600 1.2312 0.7200
0.5800 1.2480 0.7200
0.6000 1.2646 0.7200
0.6200 1.2810 0.7200
0.6400 1.2972 0.7200
0.6600 1.3131 0.7200
0.6800 1.3288 0.7200
0.7000 1.3442 0.7200
0.7200 1.3594 0.7200
0.7400 1.3743 0.7200
0.7600 1.3889 0.7200
0.7800 1.4033 0.7200
0.8000 1.4174 0.7200
0.8200 1.4311 0.7200
0.8400 1.4446 0.7200
0.8600 1.4578 0.7200
0.8800 1.4707 0.7200
0.9000 1.4833 0.7200
0.9200 1.4956 0.7200
0.9400 1.5076 0.7200
0.9600 1.5192 0.7200
0.9800 1.5305 0.7200
1.0000 1.5415 0.7200
0.0000 0.7000 0.7400
0.0200 0.7200 0.7400
0.0400 0.7400 0.7400
0.0600 0.7600 0.7400
0.0800 0.7799 0.7400
0.1000 0.7998 0.7400
0.1200 0.8197 0.7400
0.1400 0.8395 0.7400
0.1600 0.8593 0.7400
0.1800 0.8790 0.7400
0.2000 0.8987 0.7400
0.2200 0.9182 0.7400
0.2400 0.9377 0.7400
0.2600 0.9571 0.7400
0.2800 0.9764 0.7400
0.3000 0.9955 0.7400
0.3200 1.0146 0.7400
0.3400 1.0335 0.7400
0.3600 1.0523 0.7400
0.3800 1.0709 0.7400
0.4000 1.0894 0.7400
0.4200 1.1078 0.7400
0.4400 1.1259 0.7400
0.4600 1.1439 0.7400
0.4800 1.1618 0.7400
0.5000 1.1794 0.7400
0.5200 1.1969 0.7400
0.5400 1.2141 0.7400
0.5600 1.2312 0.7400
0.5800 1.2480 0.7400
0.6000 1.2646 0.7400
0.6200 1.2810 0.7400
0.6400 1.2972 0.7400
0.6600 1.3131 0.7400
0.6800 1.3288 0.7400
0.7000 1.3442 0.7400
0.7200 1.3594 0.7400
0.7400 1.3743 0.7400
0.7600 1.3889 0.7400
0.7800 1.4033 0.7400
0.8000 1.4174 0.7400
0.8200 1.4311 0.7400
0.8400 1.4446 0.7400
0.8600 1.4578 0.7400
0.8800 1.4707 0.7400
0.9000 1.4833 0.7400
0.9200 1.4956 0.7400
0.9400 1.5076 0.7400
0.9600 1.5192 0.7400
0.9800 1.5305 0.7400
1.0000 1.5415 0.7400
0.0000 0.7000 0.7600
0.0200 0.7200 0.7600
0.0400 0.7400 0.7600
0.0600 0.7600 0.7600
0.0800 0.7799 0.7600
0.1000 0.7998 0.7600
0.1200 0.8197 0.7600
0.1400 0.8395 0.7600
0.1600 0.8593 0.7600
0.1800 0.8790 0.7600
0.2000 0.8987 0.7600
0.2200 0.9182 0.7600
0.2400 0.9377 0.7600
0.2600 0.9571 0.7600
0.2800 0.9764 0.7600
0.3000 0.9955 0.7600
0.3200 1.0146 0.7600
0.3400 1.0335 0.7600
0.3600 1.0523 0.7600
0.3800 1.0709 0.7600
0.4000 1.0894 0.7600
0.4200 1.1078 0.7600
0.4400 1.1259 0.7600
0.4600 1.1439 0.7600
0.4800 1.1618 0.7600
0.5000 1.1794 0.7600
0.5200 1.1969 0.7600
0.5400 1.2141 0.7600
0.5600 1.2312 0.7600
0.5800 1.2480 0.7600
0.6000 1.2646 0.7600
0.6200 1.2810 0.7600
0.6400 1.2972 0.7600
0.6600 1.3131 0.7600
0.6800 1.3288 0.7600
0.7000 1.3442 0.7600
0.7200 1.3594 0.7600
0.7400 1.3743 0.7600
0.7600 1.3889 0.7600
0.7800 1.4033 0.7600
0.8000 1.4174 0.7600
0.8200 1.4311 0.7600
0.8400 1.4446 0.7600
0.8600 1.4578 0.7600
0.8800 1.4707 0.7600
0.9000 1.4833 0.7600
0.9200 1.4956 0.7600
0.9400 1.5076 0.7600
0.9600 1.5192 0.7600
0.9800 1.5305 0.7600
1.0000 1.5415 0.7600
0.0000 0.7000 0.7800
0.0200 0.7200 0.7800
0.0400 0.7400 0.7800
0.0600 0.7600 0.7800
0.0800 0.7799 0.7800
0.1000 0.7998 0.7800
0.1200 0.8197 0.7800
0.1400 0.8395 0.7800
0.1600 0.8593 0.7800
0.1800 0.8790 0.7800
0.2000 0.8987 0.7800
0.2200 0.9182 0.7800
0.2400 0.9377 0.7800
0.2600 0.9571 0.7800
0.2800 0.9764 0.7800
0.3000 0.9955 0.7800
0.3200 1.0146 0.7800
0.3400 1.0335 0.7800
0.3600 1.0523 0.7800
0.3800 1.0709 0.7800
0.4000 1.0894 0.7800
0.4200 1.1078 0.7800
0.4400 1.1259 0.7800
0.4600 1.1439 0.7800
0.4800 1.1618 0.7800
0.5000 1.1794 0.7800
0.5200 1.1969 0.7800
0.5400 1.2141 0.7800
0.5600 1.2312 0.7800
0.5800 1.2480 0.7800
0.6000 1.2646 0.7800
0.6200 1.2810 0.7800
0.6400 1.2972 0.7800
0.6600 1.3131 0.7800
0.6800 1.3288 0.7800
0.7000 1.3442 0.7800
0.7200 1.3594 0.7800
0.7400 1.3743 0.7800
0.7600 1.3889 0.7800
0.7800 1.4033 0.7800
0.8000 1.4174 0.7800
0.8200 1.4311 0.7800
0.8400 1.4446 0.7800
0.8600 1.4578 0.7800
0.8800 1.4707 0.7800
0.9000 1.4833 0.7800
0.9200 1.4956 0.7800
0.9400 1.5076 0.7800
0.9600 1.5192 0.7800
0.9800 1.5305 0.7800
1.0000 1.5415 0.7800
0.0000 0.7000 0.8000
0.0200 0.7200 0.8000
0.0400 0.7400 0.8000
0.0600 0.7600 0.8000
0.0800 0.7799 0.8000
0.1000 0.7998 0.8000
0.1200 0.8197 0.8000
0.1400 0.8395 0.8000
0.1600 0.8593 0.8000
0.1800 0.8790 0.8000
0.2000 0.8987 0.8000
0.2200 0.9182 0.8000
0.2400 0.9377 0.8000
0.2600 0.9571 0.8000
0.2800 0.9764 0.8000
0.3000 0.9955 0.8000
0.3200 1.0146 0.8000
0.3400 1.0335 0.8000
0.3600 1.0523 0.8000
0.3800 1.0709 0.8000
0.4000 1.0894 0.8000
0.4200 1.1078 0.8000
0.4400 1.1259 0.8000
0.4600 1.1439 0.8000
0.4800 1.1618 0.8000
0.5000 1.1794 0.8000
0.5200 1.1969 0.8000
0.5400 1.2141 0.8000
0.5600 1.2312 0.8000
0.5800 1.2480 0.8000
0.6000 1.2646 0.8000
0.6200 1.2810 0.8000
0.6400 1.2972 0.8000
0.6600 1.3131 0.8000
0.6800 1.3288 0.8000
0.7000 1.3442 0.8000
0.7200 1.3594 0.8000
0.7400 1.3743 0.8000
0.7600 1.3889 0.8000
0.7800 1.4033 0.8000
0.8000 1.4174 0.8000
0.8200 1.4311 0.8000
0.8400 1.4446 0.8000
0.8600 1.4578 0.8000
0.8800 1.4707 0.8000
0.9000 1.4833 0.8000
0.9200 1.4956 0.8000
0.9400 1.5076 0.8000
0.9600 1.5192 0.8000
0.9800 1.5305 0.8000
1.0000 1.5415 0.8000
0.0000 0.7000 0.8200
0.0200 0.7200 0.8200
0.0400 0.7400 0.8200
0.0600 0.7600 0.8200
0.0800 0.7799 0.8200
0.1000 0.7998 0.8200
0.1200 0.8197 0.8200
0.1400 0.8395 0.8200
0.1600 0.8593 0.8200
0.1800 0.8790 0.8200
0.2000 0.8987 0.8200
0.2200 0.9182 0.8200
0.2400 0.9377 0.8200
0.2600 0.9571 0.8200
0.2800 0.9764 0.8200
0.3000 0.9955 0.8200
0.3200 1.0146 0.8200
0.3400 1.0335 0.8200
0.3600 1.0523 0.8200
0.3800 1.0709 0.8200
0.4000 1.0894 0.8200
0.4200 1.1078 0.8200
0.4400 1.1259 0.8200
0.4600 1.1439 0.8200
0.4800 1.1618 0.8200
0.5000 1.1794 0.8200
0.5200 1.1969 0.8200
0.5400 1.2141 0.8200
0.5600 1.2312 0.8200
0.5800 1.2480 0.8200
0.6000 1.2646 0.8200
0.6200 1.2810 0.8200
0.6400 1.2972 0.8200
0.6600 1.3131 0.8200
0.6800 1.3288 0.8200
0.7000 1.3442 0.8200
0.7200 1.3594 0.8200
0.7400 1.3743 0.8200
0.7600 1.3889 0.8200
0.7800 1.4033 0.8200
0.8000 1.4174 0.8200
0.8200 1.4311 0.8200
0.8400 1.4446 0.8200
0.8600 1.4578 0.8200
0.8800 1.4707 0.8200
0.9000 1.4833 0.8200
0.9200 1.4956 0.8200
0.9400 1.5076 0.8200
0.9600 1.5192 0.8200
0.9800 1.5305 0.8200
1.0000 1.5415 0.8200
0.0000 0.7000 0.8400
0.0200 0.7200 0.8400
0.0400 0.7400 0.8400
0.0600 0.7600 0.8400
0.0800 0.7799 0.8400
0.1000 0.7998 0.8400
0.1200 0.8197 0.8400
0.1400 0.8395 0.8400
0.1600 0.8593 0.8400
0.1800 0.8790 0.8400
0.2000 0.8987 0.8400
0.2200 0.9182 0.8400
0.2400 0.9377 0.8400
0.2600 0.9571 0.8400
0.2800 0.9764 0.8400
0.3000 0.9955 0.8400
0.3200 1.0146 0.8400
0.3400 1.0335 0.8400
0.3600 1.0523 0.8400
0.3800 1.0709 0.8400
0.4000 1.0894 0.8400
0.4200 1.1078 0.8400
0.4400 1.1259 0.8400
0.4600 1.1439 0.8400
0.4800 1.1618 0.8400
0.5000 1.1794 0.8400
0.5200 1.1969 0.8400
0.5400 1.2141 0.8400
0.5600 1.2312 0.8400
0.5800 1.2480 0.8400
0.6000 1.2646 0.8400
0.6200 1.2810 0.8400
0.6400 1.2972 0.8400
0.6600 1.3131 0.8400
0.6800 1.3288 0.8400
0.7000 1.3442 0.8400
0.7200 1.3594 0.8400
0.7400 1.3743 0.8400
0.7600 1.3889 0.8400
0.7800 1.4033 0.8400
0.8000 1.4174 0.8400
0.8200 1.4311 0.8400
0.8400 1.4446 0.8400
0.8600 1.4578 0.8400
0.8800 1.4707 0.8400
0.9000 1.4833 0.8400
0.9200 1.4956 0.8400
0.9400 1.5076 0.8400
0.9600 1.5192 0.8400
0.9800 1.5305 0.8400
1.0000 1.5415 0.8400
0.0000 0.7000 0.8600
0.0200 0.7200 0.8600
0.0400 0.7400 0.8600
0.0600 0.7600 0.8600
0.0800 0.7799 0.8600
0.1000 0.7998 0.8600
0.1200 0.8197 0.8600
0.1400 0.8395 0.8600
0.1600 0.8593 0.8600
0.1800 0.8790 0.8600
0.2000 0.8987 0.8600
0.2200 0.9182 0.8600
0.2400 0.9377 0.8600
0.2600 0.9571 0.8600
0.2800 0.9764 0.8600
0.3000 0.9955 0.8600
0.3200 1.0146 0.8600
0.3400 1.0335 0.8600
0.3600 1.0523 0.8600
0.3800 1.0709 0.8600
0.4000 1.0894 0.8600
0.4200 1.1078 0.8600
0.4400 1.1259 0.8600
0.4600 1.1439 0.8600
0.4800 1.1618 0.8600
0.5000 1.1794 0.8600
0.5200 1.1969 0.8600
0.5400 1.2141 0.8600
0.5600 1.2312 0.8600
0.5800 1.2480 0.8600
0.6000 1.2646 0.8600
0.6200 1.2810 0.8600
0.6400 1.2972 0.8600
0.6600 1.3131 0.8600
0.6800 1.3288 0.8600
0.7000 1.3442 0.8600
0.7200 1.3594 0.8600
0.7400 1.3743 0.8600
0.7600 1.3889 0.8600
0.7800 1.4033 0.8600
0.8000 1.4174 0.8600
0.8200 1.4311 0.8600
0.8400 1.4446 0.8600
0.8600 1.4578 0.8600
0.8800 1.4707 0.8600
0.9000 1.4833 0.8600
0.9200 1.4956 0.8600
0.9400 1.5076 0.8600
0.9600 1.5192 0.8600
0.9800 1.5305 0.8600
1.0000 1.5415 0.8600
0.0000 0.7000 0.8800
0.0200 0.7200 0.8800
0.0400 0.7400 0.8800
0.0600 0.7600 0.8800
0.0800 0.7799 0.8800
0.1000 0.7998 0.8800
0.1200 0.8197 0.8800
0.1400 0.8395 0.8800
0.1600 0.8593 0.8800
0.1800 0.8790 0.8800
0.2000 0.8987 0.8800
0.2200 0.9182 0.8800
0.2400 0.9377 0.8800
0.2600 0.9571 0.8800
0.2800 0.9764 0.8800
0.3000 0.9955 0.8800
0.3200 1.0146 0.8800
0.3400 1.0335 0.8800
0.3600 1.0523 0.8800
0.3800 1.0709 0.8800
0.4000 1.0894 0.8800
0.4200 1.1078 0.8800
0.4400 1.1259 0.8800
0.4600 1.1439 0.8800
0.4800 1.1618 0.8800
0.5000 1.1794 0.8800
0.5200 1.1969 0.8800
0.5400 1.2141 0.8800
0.5600 1.2312 0.8800
0.5800 1.2480 0.8800
0.6000 1.2646 0.8800
0.6200 1.2810 0.8800
0.6400 1.2972 0.8800
0.6600 1.3131 0.8800
0.6800 1.3288 0.8800
0.7000 1.3442 0.8800
0.7200 1.3594 0.8800
0.7400 1.3743 0.8800
0.7600 1.3889 0.8800
0.7800 1.4033 0.8800
0.8000 1.4174 0.8800
0.8200 1.4311 0.8800
0.8400 1.4446 0.8800
0.8600 1.4578 0.8800
0.8800 1.4707 0.8800
0.9000 1.4833 0.8800
0.9200 1.4956 0.8800
0.9400 1.5076 0.8800
0.9600 1.5192 0.8800
0.9800 1.5305 0.8800
1.0000 1.5415 0.8800
0.0000 0.7000 0.9000
0.0200 0.7200 0.9000
0.0400 0.7400 0.9000
0.0600 0.7600 0.9000
0.0800 0.7799 0.9000
0.1000 0.7998 0.9000
0.1200 0.8197 0.9000
0.1400 0.8395 0.9000
0.1600 0.8593 0.9000
0.1800 0.8790 0.9000
0.2000 0.8987 0.9000
0.2200 0.9182 0.9000
0.2400 0.9377 0.9000
0.2600 0.9571 0.9000
0.2800 0.9764 0.9000
0.3000 0.9955 0.9000
0.3200 1.0146 0.9000
0.3400 1.0335 0.9000
0.3600 1.0523 0.9000
0.3800 1.0709 0.9000
0.4000 1.0894 0.9000
0.4200 1.1078 0.9000
0.4400 1.1259 0.9000
0.4600 1.1439 0.9000
0.4800 1.1618 0.9000
0.5000 1.1794 0.9000
0.5200 1.1969 0.9000
0.5400 1.2141 0.9000
0.5600 1.2312 0.9000
0.5800 1.2480 0.9000
0.6000 1.2646 0.9000
0.6200 1.2810 0.9000
0.6400 1.2972 0.9000
0.6600 1.3131 0.9000
0.6800 1.3288 0.9000
0.7000 1.3442 0.9000
0.7200 1.3594 0.9000
0.7400 1.3743 0.9000
0.7600 1.3889 0.9000
0.7800 1.4033 0.9000
0.8000 1.4174 0.9000
0.8200 1.4311 0.9000
0.8400 1.4446 0.9000
0.8600 1.4578 0.9000
0.8800 1.4707 0.9000
0.9000 1.4833 0.9000
0.9200 1.4956 0.9000
0.9400 1.5076 0.9000
0.9600 1.5192 0.9000
0.9800 1.5305 0.9000
1.0000 1.5415 0.9000
0.0000 0.7000 0.9200
0.0200 0.7200 0.9200
0.0400 0.7400 0.9200
0.0600 0.7600 0.9200
0.0800 0.7799 0.9200
0.1000 0.7998 0.9200
0.1200 0.8197 0.9200
0.1400 0.8395 0.9200
0.1600 0.8593 0.9200
0.1800 0.8790 0.9200
0.2000 0.8987 0.9200
0.2200 0.9182 0.9200
0.2400 0.9377 0.9200
0.2600 0.9571 0.9200
0.2800 0.9764 0.9200
0.3000 0.9955 0.9200
0.3200 1.0146 0.9200
0.3400 1.0335 0.9200
0.3600 1.0523 0.9200
0.3800 1.0709 0.9200
0.4000 1.0894 0.9200
0.4200 1.1078 0.9200
0.4400 1.1259 0.9200
0.4600 1.1439 0.9200
0.4800 1.1618 0.9200
0.5000 1.1794 0.9200
0.5200 1.1969 0.9200
0.5400 1.2141 0.9200
0.5600 1.2312 0.9200
0.5800 1.2480 0.9200
0.6000 1.2646 0.9200
0.6200 1.2810 0.9200
0.6400 1.2972 0.9200
0.6600 1.3131 0.9200
0.6800 1.3288 0.9200
0.7000 1.3442 0.9200
0.7200 1.3594 0.9200
0.7400 1.3743 0.9200
0.7600 1.3889 0.9200
0.7800 1.4033 0.9200
0.8000 1.4174 0.9200
0.8200 1.4311 0.9200
0.8400 1.4446 0.9200
0.8600 1.4578 0.9200
0.8800 1.4707 0.9200
0.9000 1.4833 0.9200
0.9200 1.4956 0.9200
0.9400 1.5076 0.9200
0.9600 1.5192 0.9200
0.9800 1.5305 0.9200
1.0000 1.5415 0.9200
0.0000 0.7000 0.9400
0.0200 0.7200 0.9400
0.0400 0.7400 0.9400
0.0600 0.7600 0.9400
0.0800 0.7799 0.9400
0.1000 0.7998 0.9400
0.1200 0.8197 0.9400
0.1400 0.8395 0.9400
0.1600 0.8593 0.9400
0.1800 0.8790 0.9400
0.2000 0.8987 0.9400
0.2200 0.9182 0.9400
0.2400 0.9377 0.9400
0.2600 0.9571 0.9400
0.2800 0.9764 0.9400
0.3000 0.9955 0.9400
0.3200 1.0146 0.9400
0.3400 1.0335 0.9400
0.3600 1.0523 0.9400
0.3800 1.0709 0.9400
0.4000 1.0894 0.9400
0.4200 1.1078 0.9400
0.4400 1.1259 0.9400
0.4600 1.1439 0.9400
0.4800 1.1618 0.9400
0.5000 1.1794 0.9400
0.5200 1.1969 0.9400
0.5400 1.2141 0.9400
0.5600 1.2312 0.9400
0.5800 1.2480 0.9400
0.6000 1.2646 0.9400
0.6200 1.2810 0.9400
0.6400 1.2972 0.9400
0.6600 1.3131 0.9400
0.6800 1.3288 0.9400
0.7000 1.3442 0.9400
0.7200 1.3594 0.9400
0.7400 1.3743 0.9400
0.7600 1.3889 0.9400
0.7800 1.4033 0.9400
0.8000 1.4174 0.9400
0.8200 1.4311 0.9400
0.8400 1.4446 0.9400
0.8600 1.4578 0.9400
0.8800 1.4707 0.9400
0.9000 1.4833 0.9400
0.9200 1.4956 0.9400
0.9400 1.5076 0.9400
0.9600 1.5192 0.9400
0.9800 1.5305 0.9400
1.0000 1.5415 0.9400
0.0000 0.7000 0.9600
0.0200 0.7200 0.9600
0.0400 0.7400 0.9600
0.0600 0.7600 0.9600
0.0800 0.7799 0.9600
0.1000 0.7998 0.9600
0.1200 0.8197 0.9600
0.1400 0.8395 0.9600
0.1600 0.8593 0.9600
0.1800 0.8790 0.9600
0.2000 0.8987 0.9600
0.2200 0.9182 0.9600
0.2400 0.9377 0.9600
0.2600 0.9571 0.9600
0.2800 0.9764 0.9600
0.3000 0.9955 0.9600
0.3200 1.0146 0.9600
0.3400 1.0335 0.9600
0.3600 1.0523 0.9600
0.3800 1.0709 0.9600
0.4000 1.0894 0.9600
0.4200 1.1078 0.9600
0.4400 1.1259 0.9600
0.4600 1.1439 0.9600
0.4800 1.1618 0.9600
0.5000 1.1794 0.9600
0.5200 1.1969 0.9600
0.5400 1.2141 0.9600
0.5600 1.2312 0.9600
0.5800 1.2480 0.9600
0.6000 1.2646 0.9600
0.6200 1.2810 0.9600
0.6400 1.2972 0.9600
0.6600 1.3131 0.9600
0.6800 1.3288 0.9600
0.7000 1.3442 0.9600
0.7200 1.3594 0.9600
0.7400 1.3743 0.9600
0.7600 1.3889 0.9600
0.7800 1.4033 0.9600
0.8000 1.4174 0.9600
0.8200 1.4311 0.9600
0.8400 1.4446 0.9600
0.8600 1.4578 0.9600
0.8800 1.4707 0.9600
0.9000 1.4833 0.9600
0.9200 1.4956 0.9600
0.9400 1.5076 0.9600
0.9600 1.5192 0.9600
0.9800 1.5305 0.9600
1.0000 1.5415 0.9600
0.0000 0.7000 0.9800
0.0200 0.7200 0.9800
0.0400 0.7400 0.9800
0.0600 0.7600 0.9800
0.0800 0.7799 0.9800
0.1000 0.7998 0.9800
0.1200 0.8197 0.9800
0.1400 0.8395 0.9800
0.1600 0.8593 0.9800
0.1800 0.8790 0.9800
0.2000 0.8987 0.9800
0.2200 0.9182 0.9800
0.2400 0.9377 0.9800
0.2600 0.9571 0.9800
0.2800 0.9764 0.9800
0.3000 0.9955 0.9800
0.3200 1.0146 0.9800
0.3400 1.0335 0.9800
0.3600 1.0523 0.9800
0.3800 1.0709 0.9800
0.4000 1.0894 0.9800
0.4200 1.1078 0.9800
0.4400 1.1259 0.9800
0.4600 1.1439 0.9800
0.4800 1.1618 0.9800
0.5000 1.1794 0.9800
0.5200 1.1969 0.9800
0.5400 1.2141 0.9800
0.5600 1.2312 0.9800
